# .PCD v0.7 - Point Cloud Data file format
VERSION 0.7
FIELDS x y z
SIZE 4 4 4
TYPE F F F
COUNT 1 1 1
WIDTH 1662
HEIGHT 1
VIEWPOINT 0 0 0 1 0 0 0
POINTS 1662
DATA ascii
17.150824 7.283460 38.090456
36.456700 8.250000 62.422970
18.763123 5.708660 11.833088
1.213817 4.527560 66.234784
7.075388 4.727829 3.937010
30.665470 7.283460 27.021140
24.057693 7.283460 33.245872
32.519700 8.017477 61.276618
31.083000 12.665286 38.124358
34.320640 10.433100 41.162768
3.337918 8.464570 1.720511
35.078700 1.695551 40.618380
19.274407 8.464570 74.959077
21.254286 5.708660 67.969458
10.277661 5.708660 44.923934
3.937010 8.377126 37.671539
3.937010 5.083755 20.926016
34.540625 12.341751 45.275600
33.904774 11.390732 37.203257
35.082650 11.480407 41.310141
34.541311 2.559060 40.828325
1.157987 8.464570 29.714181
34.004333 0.706042 45.275600
35.546614 8.464570 37.988215
3.937010 5.159065 5.801163
33.612524 8.464570 39.927074
1.097007 4.527560 55.022517
24.669284 8.464570 75.779872
27.602573 7.283460 59.600493
34.811404 12.276070 41.620813
2.930170 4.527560 27.158885
34.723325 2.559060 34.587349
23.422018 5.137507 3.937010
24.204957 7.283460 25.503357
5.147521 4.927838 74.803100
33.824348 12.957303 38.299353
3.775128 8.464570 56.705389
24.903654 7.283460 5.374338
29.020282 7.283460 22.050449
34.732315 0.587655 43.293145
33.838888 11.603012 43.566137
35.070862 1.445577 34.198415
31.420094 12.961288 33.464600
2.200453 4.527560 63.392143
31.477485 7.283460 49.882758
21.332583 8.464570 78.409714
3.937010 8.007808 36.001705
16.268608 5.708660 48.734284
33.897600 11.024536 43.141224
0.000000 8.297874 8.098658
13.867349 5.708660 44.810814
24.224207 7.619766 3.937010
10.256692 7.936995 3.937010
3.181532 4.527560 64.331599
35.012290 11.864316 39.869788
31.401111 7.584183 3.937010
0.000000 7.178802 28.699056
34.582662 8.464570 15.301528
5.663258 5.708660 30.564089
34.261064 11.438609 45.275600
3.937010 7.901940 51.064469
33.956859 12.924229 39.232817
19.460376 4.527560 0.579805
0.754716 4.527560 70.160091
17.496900 7.608432 78.740200
36.456700 5.818353 9.500994
12.948790 5.708660 38.113245
34.832635 0.725688 37.700762
32.427708 12.992100 40.063842
34.121512 1.099245 45.275600
24.977395 7.283460 52.423918
33.897600 10.299967 44.487813
3.937010 7.505584 27.461167
6.753669 7.283460 47.280321
36.089956 6.078393 78.740200
3.875049 4.527560 35.532413
34.899771 8.464570 3.708422
10.813493 7.283460 69.165275
0.462155 4.527560 14.533029
14.849712 7.283460 43.717443
17.711598 4.527560 76.975351
32.663728 0.000000 42.011145
19.337609 6.979525 78.740200
35.096211 4.527560 75.009975
3.937010 7.663639 32.415563
34.202398 8.464570 51.783242
21.343968 5.159354 3.937010
34.026657 0.330317 33.464600
6.350468 7.283460 53.862288
3.872971 8.464570 54.762028
33.455195 11.811000 39.416572
3.937010 5.298084 27.211391
27.777315 4.527560 74.956238
4.553849 4.527560 76.852694
33.688901 0.365837 33.464600
3.150766 4.527560 7.898940
33.310787 4.527560 19.471755
36.456700 5.844712 49.679494
36.456700 7.256373 67.362045
32.519700 7.609073 42.248369
23.854555 4.527560 78.270009
0.000000 7.737296 10.341191
35.652405 8.464570 73.966280
3.937010 7.822556 6.718303
36.456700 6.628716 40.896874
33.796782 11.660962 40.691749
3.937010 8.367044 23.977421
33.867713 0.029718 37.724524
24.789992 5.708660 38.978532
0.407688 8.464570 75.041715
35.290755 4.527560 52.330780
26.840793 4.823753 0.000000
16.703232 7.689400 3.937010
27.843934 5.708660 28.133104
0.000000 5.225944 8.788021
0.000000 7.319029 68.809727
32.587408 4.527560 29.285994
32.787300 8.464570 77.231419
34.974722 4.527560 50.546631
1.437944 6.624528 0.000000
0.442911 4.527560 78.533650
18.569536 6.791469 78.740200
17.433337 7.437398 74.803100
32.519700 7.921598 64.877049
36.112030 8.464570 16.470088
16.854997 7.689853 74.803100
32.157793 8.464570 78.315415
31.225779 5.708660 36.817385
34.634374 2.559060 33.587634
31.741917 1.181100 42.937614
34.922051 12.087092 41.436891
7.195576 4.527560 76.579314
15.233564 8.464570 0.644678
18.462048 7.283460 63.590287
32.519700 7.639240 32.451223
31.578619 11.889638 45.275600
25.372230 7.283460 51.808616
32.069377 0.982389 45.275600
3.937010 5.156063 18.856429
36.190176 4.527560 70.361828
34.951371 4.527560 13.427442
32.968659 8.464570 58.224446
21.540408 8.464570 3.422012
34.028058 11.421690 45.275600
34.365783 8.464570 30.404131
34.965014 0.991038 44.372816
1.756771 8.464570 47.983460
0.000000 7.891852 11.096515
31.596694 1.181100 41.688690
33.655881 11.771995 40.014227
19.946274 7.283460 68.826670
32.519700 4.621126 56.879509
33.852245 4.527560 59.135615
31.053319 0.000000 36.563696
35.136494 8.464570 55.971176
15.895432 4.527560 3.506027
3.937010 5.032954 56.458689
0.000000 4.656786 0.709829
35.385712 8.464570 59.579300
31.403047 7.283460 53.247360
5.962971 4.527560 77.405757
36.456700 5.416380 15.216171
29.331881 5.708660 53.611500
21.392667 5.708660 35.942047
32.684192 4.527560 36.574037
12.902551 7.447970 3.937010
7.562780 4.527560 75.499639
7.159035 5.490594 0.000000
18.709772 4.527560 75.736840
0.000000 7.548347 26.631896
36.456700 4.962380 51.365916
13.904905 4.874539 0.000000
15.379122 8.353824 3.937010
35.078700 3.515088 39.798366
33.109570 4.527560 60.973431
35.073416 11.582772 38.691476
0.000000 5.432482 61.894908
32.519700 8.109587 31.451478
34.918820 8.861890 45.275600
3.937010 7.789885 63.416744
36.456700 5.797628 64.742962
35.138189 4.527560 10.247493
4.348692 8.464570 0.991465
4.211452 5.708660 18.366665
32.421273 0.000000 37.046501
11.250106 4.530384 3.937010
33.779329 0.013293 40.943898
30.956354 1.181100 40.097960
28.263755 5.708660 18.055928
31.196154 1.181100 38.368568
33.811272 1.327465 35.920998
3.418187 4.527560 59.023750
34.327274 0.222287 44.968799
22.485724 8.464570 1.839659
8.604600 5.708660 65.988570
3.362447 4.527560 26.628364
1.150844 4.527560 24.891475
31.123721 0.962462 33.464600
14.253921 4.527560 1.812160
13.331740 8.464570 3.283360
33.692666 1.033130 45.275600
32.519700 7.332457 61.132668
36.456700 5.205155 10.955432
34.497315 2.859518 33.464600
7.494552 4.527560 77.002355
22.346798 5.074305 74.803100
11.857999 5.708660 33.362668
33.897600 3.133863 39.056294
36.456700 8.189910 15.639239
33.816175 4.527560 4.945932
34.137521 10.580275 45.275600
32.898734 0.000000 41.829307
35.086550 11.321988 36.251325
3.020397 8.464570 59.239270
34.017376 12.901355 36.119876
33.125008 8.248695 78.740200
34.325751 4.527560 47.759443
35.042838 1.719723 33.464600
31.177061 5.708660 43.335628
34.878202 2.559060 40.374509
0.000000 5.306894 47.796563
33.897600 10.300731 41.990708
5.312327 7.917985 3.937010
34.486430 8.464570 18.319934
3.937010 4.589089 11.146418
32.519700 7.534526 32.371733
0.962342 8.464570 28.438908
30.944900 1.067677 38.478886
31.308511 8.464570 0.185479
26.527120 8.464570 77.496387
1.710006 4.527560 11.636667
32.633561 11.984179 45.275600
32.699889 4.527560 29.359641
35.078700 9.010517 41.349515
3.937010 7.832703 54.102491
13.173387 5.708660 14.901898
2.717537 8.464570 56.549952
32.714771 4.527560 16.625362
35.076781 11.515028 33.464600
2.880255 8.464570 51.626162
4.801126 7.283460 32.172567
31.342745 12.992100 41.503022
34.473326 4.527560 22.010615
34.893348 4.527560 55.349735
33.763578 11.696493 44.780249
34.367199 2.559060 44.073352
32.640573 11.811000 38.406696
3.573446 7.971203 0.000000
31.083000 12.769657 35.666834
32.519700 8.099370 41.758336
27.225020 5.198837 74.803100
18.882622 7.283460 38.789009
15.820848 4.799459 74.803100
0.874278 4.527560 21.664992
3.937010 5.472745 53.186804
36.456700 6.997616 61.381126
20.333804 8.134760 3.937010
34.266318 0.317417 33.464600
33.846847 7.858420 78.740200
33.756456 1.268073 39.797956
3.144744 4.527560 53.105500
21.681254 7.624572 74.803100
15.660515 7.283460 56.474150
3.549704 7.019595 78.740200
35.276644 4.527560 54.121158
31.460136 5.708660 64.831728
35.078700 2.915799 43.677848
35.033014 1.206599 35.120488
35.072198 11.596222 33.633662
0.000000 4.904563 26.918451
15.638576 8.464570 78.132751
32.519700 5.248647 61.586400
9.902249 5.708660 9.272825
35.469917 4.527560 58.260641
33.897600 4.148332 43.925108
35.824448 4.527560 10.172540
22.805668 7.283460 19.109738
33.001687 11.811000 39.405687
33.805929 11.650261 40.474858
32.519700 4.808487 67.869003
12.452066 5.708660 73.626875
33.132229 4.527560 33.563710
33.707058 11.741490 36.245932
20.242853 4.527560 77.174824
33.854741 8.464570 23.684007
33.002298 11.811000 45.106500
34.058863 12.883865 39.071024
34.833286 0.726849 39.141905
35.078700 3.345153 33.772434
23.446970 6.162113 78.740200
6.351352 5.708660 24.962556
26.844346 7.283460 14.560997
35.627260 8.464570 34.741307
0.847381 8.392037 78.740200
33.897600 8.733899 38.569852
34.677312 0.516341 41.872615
36.104271 4.527560 67.729567
35.078700 1.977731 38.664252
13.699478 5.708660 9.802168
33.735632 0.951332 33.464600
36.456700 5.341131 30.818528
33.894984 11.463766 35.389279
11.402860 5.708660 59.519879
33.922132 12.932897 39.121495
35.071309 11.606051 38.398837
34.341341 0.232365 39.697916
3.937010 8.109364 36.186241
30.084741 8.464570 2.266290
35.230988 8.464570 22.924795
35.059690 1.326408 44.586063
1.374986 8.464570 33.765669
32.519700 5.098090 34.022887
2.710822 4.527560 63.973788
30.944900 1.109403 41.052940
27.432833 5.708660 49.513161
10.607075 5.708660 38.701008
32.519700 7.970428 25.914965
0.000000 6.691758 66.500573
34.469101 1.172133 33.464600
11.376793 4.957432 74.803100
32.519700 8.262550 55.110567
33.786591 0.253840 45.275600
26.913663 4.527560 1.078379
5.904484 7.283460 46.432525
35.078700 10.728647 38.465718
32.796746 11.811000 38.995448
22.258093 4.527560 77.272087
13.095173 4.527560 75.923113
34.175960 10.433100 41.191097
35.078700 4.333097 37.205407
2.230048 4.527560 22.261589
34.675186 0.513585 41.616295
5.187741 8.464570 77.783501
17.145212 6.539415 0.000000
3.937010 8.374151 13.551752
32.571273 0.000000 38.721619
34.723228 10.433100 42.440789
33.897600 8.599145 44.244057
11.987503 5.203967 3.937010
33.184055 4.527560 60.224726
28.458343 7.283460 59.051187
33.897600 3.554106 35.925605
34.201678 4.527560 11.103867
26.917843 5.708660 38.045563
3.937010 5.448402 24.888918
32.519700 8.214719 34.553414
23.849516 5.708660 14.823071
32.519700 7.653105 62.583587
32.851632 12.992100 36.334139
33.388952 8.464570 42.895980
16.546642 8.464570 74.853853
15.792105 4.527560 74.835769
34.242530 8.464570 8.846726
33.816648 11.753656 33.464600
7.897562 7.283460 37.199852
0.000000 6.407932 58.178885
34.211093 10.407658 45.275600
31.578035 5.463866 3.937010
34.809703 4.527560 69.863236
12.211145 8.464570 78.111039
31.083000 12.427375 39.449610
32.133717 1.181100 33.681373
34.329468 10.433100 38.808521
3.937010 7.760143 49.988324
9.335353 5.708660 49.787617
33.968444 1.655283 33.464600
36.456700 8.352196 69.599811
0.000000 5.083945 31.283163
15.311927 4.527560 77.718331
33.299531 11.811000 42.706924
34.048604 4.527560 62.932250
26.974340 8.464570 76.292727
33.284483 0.860424 45.275600
31.557640 12.246888 33.464600
33.900576 11.285500 39.169774
0.000000 6.112537 60.459904
25.425869 5.708660 55.716509
34.298055 4.527560 6.332096
29.219760 8.464570 3.046000
33.372350 8.464570 52.687421
33.535325 0.793023 33.464600
33.897600 11.137600 36.454770
35.078700 3.434535 36.605214
9.893047 4.608134 0.000000
12.927705 5.708660 55.139716
36.418905 8.464570 15.541202
36.456700 4.832285 27.467797
23.249842 8.464570 76.875877
30.120969 5.708660 30.041037
33.855172 8.464570 39.473633
33.103811 1.181100 44.490965
30.944900 0.761219 39.008789
28.957422 5.708660 9.030539
3.937010 5.693836 60.648272
33.892016 1.312644 45.275600
18.105910 7.283460 42.320559
0.000000 6.269598 58.512413
8.387266 8.464570 75.617626
6.948728 4.527560 2.569658
35.076917 11.457451 33.464600
36.456700 5.347519 15.495856
17.832222 4.527560 0.220019
21.253932 7.283460 53.524553
33.897600 1.818474 34.520236
7.026073 4.982038 3.937010
9.777182 5.708660 50.749379
33.451503 12.980740 33.464600
1.246697 8.464570 50.715828
36.456700 6.774090 11.185183
15.053510 7.283460 18.611731
3.937010 4.848945 32.755783
15.175645 7.283460 31.658232
26.969852 4.550984 3.937010
0.000000 7.174254 76.694383
35.078700 8.920192 44.308774
34.995092 1.069692 44.540807
34.106085 10.433100 34.700112
29.369710 7.283460 15.954842
31.872437 4.527560 1.665592
12.596110 7.283460 42.433596
35.078700 9.533843 36.357091
31.804460 0.615147 45.275600
3.937010 7.443120 70.567922
0.000000 7.044457 77.803572
35.067232 4.527560 45.339129
32.519700 8.259555 49.503919
0.597081 8.464570 20.370085
16.652780 8.464570 77.014634
1.410433 8.464570 30.433336
36.456700 5.355523 65.968575
2.526176 4.527560 46.486259
34.431940 12.679105 36.542693
19.765446 8.199803 3.937010
1.138238 5.911200 0.000000
34.898190 0.842642 43.085633
33.992913 2.559060 34.155326
36.456700 5.106146 12.743934
36.456700 7.931612 11.921883
0.000000 4.808325 72.530524
3.937010 4.634334 46.711791
35.078700 3.592737 38.526733
33.973031 12.834044 33.464600
30.944900 1.119682 36.148091
35.078700 2.762434 43.553410
35.072413 1.466874 40.904872
34.263610 8.464570 67.641463
6.424219 6.542408 0.000000
31.733058 12.992100 43.148122
31.883315 12.086459 33.464600
36.456700 5.672044 11.969105
13.225260 8.464570 1.418744
34.433882 10.395760 33.464600
16.057988 5.708660 4.794024
33.713865 8.464570 52.649693
34.329071 8.464570 14.395500
31.859083 12.992100 35.735010
20.947669 4.858184 74.803100
2.236160 8.464570 25.969549
27.682543 6.975725 78.740200
35.078700 9.392456 37.962971
31.592908 4.527560 1.984782
7.706358 7.283460 60.171790
1.618718 4.527560 73.546181
25.870504 7.378733 3.937010
8.180453 7.283460 72.448077
33.192839 8.464570 23.674959
1.698327 8.464570 21.856850
7.794022 5.708660 50.710097
35.817121 4.527560 59.187926
33.629765 1.192846 38.687091
2.120130 4.527560 49.837154
33.825364 1.345734 40.989594
12.159063 5.708660 24.410593
34.441704 2.222360 45.275600
0.000000 4.712933 33.068617
34.301565 8.464570 66.145176
29.556968 5.708660 39.485858
33.890040 11.483542 38.232157
21.535313 5.875292 0.000000
34.741822 0.599982 42.262876
21.582730 4.527560 76.979367
5.731278 5.708660 49.537249
36.382395 8.464570 62.082771
32.558112 12.701485 45.275600
17.466652 5.708660 25.922409
35.190874 4.527560 72.466075
36.160609 8.464570 35.494954
10.009037 7.283460 50.022212
9.822732 4.527560 76.784417
28.586974 4.527560 77.697241
22.057058 5.708660 68.473326
31.250516 11.811000 41.398755
34.000430 8.630026 45.275600
23.587497 5.064103 74.803100
28.011509 8.464570 75.784730
32.301571 5.708660 28.980347
32.519700 4.801280 29.395481
35.021673 11.802472 33.464600
31.083000 12.924496 42.665149
0.611501 8.464570 9.484938
3.359650 8.464570 62.276434
36.158588 8.464570 69.521917
31.978896 7.283460 29.171862
34.601516 0.651029 33.464600
36.456700 6.572618 73.011082
36.103228 5.367965 78.740200
36.456700 6.852237 54.733972
20.976255 5.708660 11.282967
35.071462 1.453821 42.747413
32.519700 8.101830 39.422976
15.203749 8.464570 1.774254
33.880936 0.032176 42.856086
1.237270 8.464570 66.090478
33.982897 4.527560 28.118848
33.440998 1.181100 38.426749
0.000000 6.777892 75.240545
26.461531 7.283460 72.409185
32.519700 5.171311 58.317743
31.175288 0.792830 33.464600
12.414299 4.527560 2.492823
32.519700 8.018033 18.182287
32.519700 8.399461 51.630634
3.915306 4.527560 7.178440
32.405966 1.181100 42.101303
2.080904 4.527560 9.576764
31.443654 12.992100 42.478407
31.154778 1.181100 40.069271
36.456700 7.723181 45.613286
12.763092 5.708660 38.254236
12.724996 5.708660 73.541415
35.078700 2.990631 43.059854
36.183270 4.527560 11.685049
36.456700 6.097593 1.863072
35.466360 4.527560 74.722486
28.582789 7.283460 73.183387
34.013069 12.877976 33.464600
2.857383 4.527560 19.719815
35.059744 10.433100 34.417905
7.186528 7.283460 19.498327
27.264748 5.113813 3.937010
34.007427 0.073736 34.130174
33.961211 8.464570 50.686723
1.695134 8.464570 49.852503
32.519700 7.709308 5.872351
25.525519 5.708660 40.724724
36.456700 8.169458 47.835151
14.143356 7.283460 60.990256
5.722093 4.527560 76.211735
14.932044 7.283460 61.372188
32.933455 12.992100 33.800509
33.682645 8.464570 44.052138
25.497376 5.708660 72.428964
31.083000 12.364285 44.117696
1.495684 4.527560 55.947972
33.007732 4.527560 55.102033
24.251091 5.615948 74.803100
23.419183 7.283460 58.713937
33.462971 4.527560 10.405193
34.868480 8.922408 33.464600
8.325554 4.527560 76.003771
30.204668 8.464570 77.272397
6.087848 5.708660 34.151851
4.321394 5.708660 67.405867
33.897600 11.179244 44.723218
0.000000 8.462486 6.346268
1.492849 8.464570 76.741256
29.044843 5.647444 0.000000
33.904466 11.394148 42.150867
33.865036 11.553997 35.183874
3.537170 8.464570 4.704328
36.456700 8.060039 66.514429
32.835017 11.811000 36.800700
0.000000 6.707455 35.125528
28.157350 7.283460 9.386529
0.000000 8.151316 64.265102
2.925489 4.527560 24.444836
36.456700 4.826256 37.184522
2.565475 4.527560 32.564166
21.571450 5.708660 19.777832
31.241413 12.992100 34.924720
34.898496 1.700549 45.275600
35.071941 1.460388 38.705237
16.954803 5.472012 74.803100
35.078105 11.530867 40.781927
31.363792 7.283460 16.339134
31.895789 0.000000 36.954753
36.456700 6.264094 78.535070
32.519700 7.291653 25.986775
18.299973 7.283460 73.126991
33.883182 11.510943 38.364510
31.083000 11.811898 36.847614
3.806761 8.464570 14.836284
19.035712 8.279407 74.803100
34.516324 1.457188 33.464600
33.969001 12.921199 43.825133
19.481257 7.283460 63.982815
33.001490 4.527560 23.944032
3.937010 4.828988 30.571352
0.000000 6.870903 52.509166
36.418444 5.769972 78.740200
2.105434 7.468639 78.740200
8.906003 4.527560 76.887321
33.889722 1.506450 44.863940
35.251678 8.464570 12.288265
3.937010 8.338948 73.688153
36.448051 4.527560 55.692763
7.555839 4.675998 78.740200
31.103185 4.527560 0.489190
30.944900 0.045887 44.387775
9.986120 8.350431 3.937010
2.625834 8.464570 6.568117
34.614084 0.454352 44.025114
32.800852 8.464570 62.639131
32.975084 4.527560 43.145156
0.000000 8.119648 65.201833
13.606876 5.708660 29.880881
34.551647 0.394090 41.822882
36.456700 7.096436 18.977466
25.358896 7.283460 14.655363
32.519700 7.855612 8.093595
33.897600 9.565352 45.001213
33.706667 12.983423 42.037078
11.896599 7.464911 3.937010
18.530726 4.527560 77.744315
19.248993 8.464570 0.328866
33.691610 11.751051 44.666328
35.075826 6.371018 78.740200
1.136736 4.527560 73.096575
36.456700 7.006741 44.622251
3.937010 5.292693 27.990673
34.197194 4.344854 33.464600
33.897600 11.221075 34.413689
32.451880 11.811000 40.817220
0.672245 4.527560 61.821737
33.898434 11.449966 38.528557
33.359799 8.464570 7.811531
19.271444 7.283460 45.140334
33.897600 8.982159 43.565738
34.864470 12.190197 39.170807
33.642956 1.197368 39.624115
34.210825 0.160473 37.439954
0.866104 8.464570 55.549723
4.506071 8.464570 74.902909
3.304023 8.464570 19.470064
33.280239 8.209724 78.740200
34.954667 4.527560 26.384780
35.040882 1.241935 39.562264
35.078700 9.565534 34.936610
34.665871 12.461946 37.744496
30.944900 0.358622 42.288745
32.519700 8.183633 72.356190
23.842011 5.708660 67.537598
35.078700 3.854738 42.166844
30.910702 5.708660 19.969855
33.654412 8.464570 54.688039
33.920751 8.464570 70.114429
14.282502 8.016223 0.000000
17.587553 4.527560 1.134479
34.079145 6.814262 78.740200
34.500167 0.346154 43.459881
3.937010 4.646837 63.971496
17.445400 4.527560 1.328849
31.083000 12.548510 44.309822
33.385269 4.527560 5.076218
33.134178 12.992100 41.907801
34.744824 0.603874 39.684431
21.361752 7.283460 53.931337
33.855028 8.464570 21.459890
18.501099 4.527560 75.820885
0.267362 4.527560 67.777214
27.548263 8.464570 3.719317
14.549594 7.283460 66.546924
35.063327 11.659917 37.488692
0.000000 8.014746 25.373525
3.937010 5.028483 37.654656
0.000000 5.541739 15.728492
5.229747 6.970126 78.740200
32.825834 1.181100 42.987594
10.048783 4.928123 78.740200
36.456700 6.138946 18.564525
25.105144 4.527560 75.278923
12.549958 7.283460 24.467106
2.307932 4.527560 6.992960
32.722532 11.811000 37.391909
33.897600 9.575546 39.519229
32.691502 12.992100 43.194453
33.627689 11.783877 41.024230
14.385331 7.757161 74.803100
11.566601 7.283460 49.686373
28.960090 5.708660 41.559567
34.772483 0.639735 38.578706
5.895027 4.527560 74.822328
32.519700 4.770946 71.482074
33.903964 11.337768 42.871208
32.519700 5.245506 38.414817
33.897600 2.016404 33.663788
3.937010 4.962295 49.506193
35.552132 4.527560 78.621795
20.051643 5.708660 34.627753
35.078700 2.086259 43.272771
3.937010 4.891427 62.603289
33.966111 0.222524 33.464600
15.922641 8.171440 74.803100
17.474284 4.527560 2.867759
35.082907 11.266016 35.850480
35.078700 10.953016 37.786469
3.698355 8.464570 17.688255
32.681812 8.464570 59.430253
34.291706 12.768657 36.266821
32.709955 12.992100 36.671453
12.379326 5.708660 26.803839
16.275066 8.190337 74.803100
31.847426 11.811000 38.486700
14.022139 5.708660 74.789150
3.885959 8.464570 15.219805
30.991600 5.229802 3.937010
35.210617 4.527560 39.458976
13.882752 7.283460 54.718988
3.896001 8.464570 29.796484
35.073801 11.578515 38.037216
6.578435 6.047265 78.740200
33.776139 1.287109 34.843824
34.189720 4.527560 60.971337
6.941497 7.283460 12.214549
13.300328 5.708660 12.199763
31.105958 0.786634 45.275600
10.919645 8.464570 77.169326
9.178742 4.527560 78.608034
33.981271 10.433100 39.668781
25.853508 5.708660 24.856154
31.083000 12.647212 34.406823
3.936108 4.527560 54.669305
31.859796 12.992100 42.144201
33.703635 0.530072 33.464600
33.897600 10.041791 42.939481
18.151027 5.708660 69.524617
33.647971 11.775328 37.059247
33.301086 0.000000 38.456874
35.088316 11.417489 39.109046
36.314804 8.464570 20.278425
10.979512 7.283460 59.450833
33.069798 4.527560 17.466088
34.965673 1.573228 45.275600
30.361422 5.708660 41.759298
19.876150 7.283460 73.670181
33.897600 3.764073 38.035972
3.937010 7.502876 63.547183
34.133015 8.464570 12.285996
31.083000 12.667629 38.229439
25.174783 5.708660 26.350657
35.078700 9.625961 34.884954
33.549581 1.181100 42.258978
35.078700 2.613711 34.712477
36.456700 7.686428 45.754089
33.897142 0.036006 39.562438
32.226814 11.811000 44.385300
33.096134 8.464570 58.478964
34.785488 12.318009 43.895754
35.020457 2.559060 37.971831
31.292019 12.992100 44.467518
3.937010 8.261683 43.433258
26.813211 5.708660 32.433527
33.610891 8.464570 77.930726
33.897600 9.533533 36.312999
34.636189 4.527560 21.007995
0.000000 5.267429 48.822718
0.000000 7.743976 37.901055
20.865363 5.166092 3.937010
19.867857 8.287142 0.000000
6.892377 5.708660 46.891411
3.937010 5.283183 70.381658
33.460287 4.527560 33.252587
36.019642 8.464570 77.333755
33.736090 1.251649 34.471220
6.881285 7.283460 31.003103
33.632371 12.177296 33.464600
28.684170 5.336110 74.803100
9.266931 5.708660 71.541472
32.757476 8.464570 58.823111
25.049585 7.283460 35.035229
30.643351 8.464570 1.905458
16.681489 5.708660 13.322556
33.967059 3.548841 33.464600
1.172026 4.527560 7.160059
0.000000 6.911859 37.223880
36.456700 8.428332 1.616726
12.224235 7.283460 28.668453
17.129934 4.527560 76.004623
33.897600 10.083976 33.612954
6.211562 5.708660 19.250209
6.281509 5.708660 63.722260
0.758421 4.527560 44.638697
28.043739 6.474070 78.740200
26.968611 7.892873 3.937010
33.764071 0.010457 41.217112
24.237699 7.283460 66.811381
32.706364 8.464570 7.072547
8.531206 8.464570 76.306695
32.519700 7.647922 44.817426
9.229201 5.708660 4.431471
32.872807 12.992100 43.694947
0.228007 8.464570 4.472546
32.534318 8.464570 22.955375
18.067229 5.271685 3.937010
31.600055 12.992100 36.160596
31.083000 11.897882 34.265714
6.430699 8.464570 76.699595
26.208404 7.820990 0.000000
8.855119 5.708660 5.476712
25.810136 8.464570 0.734771
33.143612 11.811000 35.371307
31.301891 1.181100 33.957046
3.244396 8.464570 10.317877
32.525178 4.527560 58.613978
1.182028 4.527560 8.455197
18.164528 5.708660 68.941694
22.108733 8.464570 2.464663
6.671878 5.708660 55.839001
7.339364 8.464570 0.155315
3.485246 8.464570 69.619866
35.080713 11.431542 33.464600
31.984111 7.508475 74.803100
22.422877 7.384563 74.803100
35.078700 3.595170 42.266706
33.897600 3.267807 44.020702
34.344681 11.985031 45.275600
34.786004 8.464570 60.033727
30.944900 0.357570 39.650202
35.961785 8.464570 60.778386
32.519700 4.955520 13.760843
32.422768 7.283460 7.456215
12.092521 7.303448 3.937010
28.865059 4.527560 75.704728
33.689281 12.984982 39.370441
0.156194 8.464570 23.091965
33.897600 4.286175 42.352036
34.213457 0.161830 39.438406
33.261396 8.464570 56.552572
34.944833 0.938265 33.720167
29.645321 7.283984 3.937010
14.462907 8.464570 76.382587
34.459699 0.317161 43.038936
5.262706 5.708660 71.130022
21.335991 7.283460 54.186131
6.468741 5.326208 3.937010
35.697660 8.464570 23.894156
6.608073 7.283460 50.419601
34.519249 0.362821 43.531295
7.447597 7.283460 57.793424
33.534298 8.464570 71.087521
36.456700 5.335636 9.366485
33.892046 1.520118 42.085993
14.511418 8.464570 74.892165
35.608399 8.464570 20.022094
0.998109 4.527560 65.846650
35.078667 1.928426 33.464600
35.008918 11.877817 37.079448
30.944900 0.201955 36.679552
19.661526 4.603089 3.937010
18.211844 4.527560 0.885070
26.258325 4.527560 1.371125
36.456700 6.694928 26.070720
35.078700 8.581738 39.584888
32.036064 0.000000 34.998738
33.897600 9.713745 44.562012
4.290031 4.527560 3.706011
33.990737 8.464570 78.116348
32.987363 4.527560 63.741336
24.717494 7.283460 67.691969
9.317325 4.637525 3.937010
26.002484 5.604567 74.803100
17.593561 4.527560 1.918012
33.972236 12.920385 43.454325
33.410349 8.464570 16.441416
33.731251 12.980539 41.312923
6.383823 5.708660 15.606058
3.937010 5.302089 63.337565
33.857803 11.571160 37.459267
36.255925 8.464570 27.611213
33.930424 1.758034 45.275600
32.212608 7.283460 51.750686
22.887336 5.708660 61.358416
33.882338 1.473147 34.563052
22.388982 4.527560 3.382657
23.422670 8.462337 74.803100
19.005049 7.283460 64.583031
35.090154 11.397087 42.097013
3.991829 7.283460 12.282264
32.519700 5.471979 44.853404
3.937010 7.564777 18.001594
21.211747 4.527560 3.710681
7.292465 5.708660 43.231124
35.925741 8.464570 22.495112
25.395401 6.040595 0.000000
21.368124 5.708660 18.956688
10.973104 8.464570 0.041325
33.667335 8.464570 22.978681
33.897600 10.685349 38.560489
35.078700 4.283386 39.390775
0.935975 8.464570 75.329891
31.904277 11.811000 37.350473
32.519700 7.619237 35.358054
35.078700 11.143045 35.430000
33.139443 1.181100 41.181800
0.000000 6.866389 60.109987
23.906457 4.527560 1.340190
34.630680 2.559060 38.319711
33.737346 12.151615 33.464600
34.956173 2.022279 45.275600
32.986095 1.161809 45.275600
36.293190 8.464570 54.714097
35.757736 5.717300 78.740200
26.525538 7.283460 41.641606
0.812376 8.464570 10.961284
35.078700 3.487585 36.961950
23.229511 6.413094 78.740200
35.078700 2.123535 40.094994
34.650179 10.986606 45.275600
21.192930 8.464570 78.487016
3.937010 7.343639 40.498636
32.664057 4.527560 67.111126
35.034392 10.789193 33.464600
4.780693 8.252082 0.000000
34.570503 0.412289 39.945034
34.018813 10.188057 45.275600
33.759980 1.271481 43.304586
2.099908 7.637012 78.740200
33.897600 2.318182 37.925018
0.000000 8.209741 72.213329
21.383176 8.399835 0.000000
32.519700 8.323191 49.955122
34.789186 12.312024 34.845811
28.763012 7.283460 31.138903
35.197773 8.464570 40.554111
3.937010 4.629831 73.902916
4.144495 5.708660 32.725177
0.000000 5.428405 10.428333
1.800398 4.527560 14.704824
33.606365 0.000000 43.769599
13.258180 5.708660 55.429972
9.976578 7.589981 74.803100
3.937010 4.908293 22.200912
4.813113 7.283460 48.115795
31.448049 11.811000 42.228244
17.171671 7.283460 71.189225
21.065697 8.464570 75.660777
32.519700 5.477809 47.196365
11.118786 7.283460 11.762598
3.537655 8.464570 76.374075
27.936144 5.197984 74.803100
35.072519 11.592675 38.875461
34.798112 12.297579 42.526256
34.546826 10.433100 42.214299
21.206265 7.844146 74.803100
35.049396 11.715707 42.839019
31.083000 11.847876 42.821542
33.897600 2.818064 35.056011
4.044183 7.283460 25.196442
33.318898 4.527560 6.742810
0.515832 4.527560 61.248763
11.399441 7.623112 3.937010
0.000000 6.945569 66.076843
10.583197 4.527560 3.702273
31.621817 7.283460 9.454289
33.897600 1.876301 42.187328
2.688853 4.527560 29.990040
36.456700 7.125425 73.475948
3.937010 4.711130 24.661391
2.490384 8.464570 70.097943
35.004164 8.464570 60.029292
35.078700 1.885217 44.940568
34.444755 1.983529 45.275600
36.456700 6.948776 17.592498
34.769031 4.527560 61.024045
7.314911 5.708660 12.235281
27.243234 5.123137 0.000000
17.261155 5.397864 78.740200
33.897600 2.376974 33.831065
31.836958 5.708660 10.095676
33.905300 11.384892 42.693429
16.127817 7.283460 20.291947
3.302028 8.464570 48.803146
36.456700 6.616884 17.738749
31.409143 12.963671 33.464600
35.199801 4.527560 58.257540
30.169829 7.283460 20.616074
7.839810 4.527560 1.455508
18.901674 7.283460 16.070156
35.078700 10.322378 39.926975
1.698644 6.815536 78.740200
34.409087 12.696120 37.166441
35.078700 2.450352 37.774910
6.746517 4.527560 1.458689
0.000000 7.522267 69.361442
29.552663 8.464570 0.550408
32.519700 5.491032 21.191412
17.926974 7.283460 13.875777
31.505513 0.021245 33.464600
35.047656 11.722676 38.926754
8.460887 5.708660 26.407549
34.785563 9.747585 45.275600
36.456700 7.783772 20.280790
20.166660 5.708660 28.071222
3.937010 7.876749 4.713134
3.093634 4.527560 5.921557
35.019329 8.464570 65.955303
3.937010 5.341900 35.794747
32.519700 7.550708 58.954328
1.013384 4.527560 23.335250
33.897600 3.935460 41.138177
0.141325 5.256766 78.740200
28.008287 4.527560 75.099089
32.728626 4.527560 37.813596
32.519700 7.607792 21.811409
32.411924 0.530003 33.464600
18.406568 7.283460 62.146408
36.456700 5.889731 14.522555
4.038861 7.283460 66.990995
35.646843 8.464570 70.192198
35.078700 3.698530 36.607262
33.666986 12.986981 35.866367
35.029742 2.244098 33.464600
28.958984 4.527560 77.160077
36.456700 5.700624 19.623552
0.062889 7.661172 0.000000
27.554946 7.452703 78.740200
0.000000 7.591462 55.676387
5.673175 8.464570 1.966860
32.711907 11.811000 38.324817
13.889670 8.464570 77.938690
0.786679 8.464570 56.750488
14.350671 5.708660 49.098985
15.629458 7.283460 56.176042
32.519700 5.693140 14.278477
33.897600 2.947531 37.471033
33.704555 8.464570 74.241406
5.252465 8.037833 0.000000
33.627151 0.875475 45.275600
0.160913 4.527560 59.238891
7.790522 8.464570 76.058317
11.094104 4.527560 3.361006
34.453140 12.660953 36.619816
33.127162 4.527560 22.605114
35.014179 1.122005 44.486544
34.752869 8.464570 66.919335
33.698004 12.984200 36.712293
8.901722 5.708660 40.184205
30.944900 0.442054 36.139095
0.094080 8.464570 23.500895
1.900866 4.527560 44.657854
10.813830 7.283460 33.499544
22.243279 7.283460 39.447174
32.450708 0.000000 38.747297
3.937010 8.316035 30.046341
33.628913 1.192554 38.026671
25.163663 7.283460 24.837359
15.823809 5.708660 31.276989
2.577747 4.527560 9.056598
35.075328 11.561650 36.321490
35.160347 4.527560 47.727419
28.868158 7.404823 0.000000
31.461307 12.992100 42.652687
31.083000 11.877040 37.830277
33.935703 12.929509 40.059736
25.917173 5.396960 74.803100
34.874356 10.842313 45.275600
17.465166 5.708660 34.267677
26.212484 4.527560 3.119303
16.250039 7.283460 4.658824
29.913483 7.283460 35.803516
1.847954 8.464570 8.933689
7.885489 7.283460 63.198296
33.089661 12.640132 45.275600
32.667076 4.527560 17.820750
21.659855 4.527560 78.053405
19.882572 7.283460 30.639604
3.937010 5.146278 63.845211
1.612423 4.527560 37.984043
33.897600 2.572366 34.945227
33.897600 10.192849 34.357506
21.664792 7.283460 14.195248
33.897600 10.839537 43.899346
33.509334 0.000000 34.075540
12.104679 5.682404 78.740200
7.976546 5.708660 32.903292
35.078700 10.708976 36.695171
34.572164 2.559060 39.786194
3.937010 5.392645 44.151393
3.937010 7.337351 35.643539
5.576746 5.059966 74.803100
34.684147 4.527560 53.730883
33.897600 10.800104 35.040751
33.898362 11.251348 44.577294
32.169717 5.708660 20.678912
3.937010 7.662287 58.798685
27.931030 7.667116 74.803100
20.212687 7.812924 74.803100
33.897600 11.044519 37.811403
18.977203 8.464570 1.670759
13.098460 5.708660 64.147710
33.860789 11.564073 38.041168
20.628205 7.817781 0.000000
20.850237 5.520631 78.740200
33.569218 4.527560 17.809818
35.313578 8.464570 66.389720
15.158789 8.464570 0.719104
5.184446 5.708660 10.825285
34.999175 3.947796 45.275600
9.558653 5.438602 3.937010
34.639685 2.559060 40.194018
3.937010 4.578112 69.096050
34.592207 12.541876 42.937686
14.691279 7.283460 6.696580
33.650840 12.988429 42.743826
3.937010 5.632672 54.225338
33.002655 8.464570 22.963120
35.078700 1.857931 34.312047
21.700048 4.527560 3.289672
34.736647 8.711964 45.275600
33.899018 8.464570 50.917676
0.000000 7.937289 13.261517
34.973840 1.016465 45.275600
11.332249 8.464570 0.417044
35.174067 8.464570 39.066194
34.559326 4.527560 50.530235
31.083000 12.023065 43.192579
33.770797 11.690323 40.987831
21.535601 8.122765 74.803100
34.159472 0.949624 45.275600
12.601100 5.708660 16.419237
33.699656 4.527560 3.106682
33.876557 1.451328 45.237778
33.057352 4.527560 67.812456
35.078700 9.092768 35.323823
12.447957 7.283460 24.485809
34.697426 0.542420 36.354835
0.936366 8.464570 3.035675
3.937010 7.921092 12.421833
32.733425 1.181100 39.430261
22.910140 5.414585 74.803100
34.284001 0.198183 36.657433
33.897600 10.168707 39.754774
34.956215 0.968030 39.052057
18.149914 4.527560 75.919095
0.000000 6.329832 4.093908
32.792001 1.181100 39.124472
36.456700 6.307423 42.777881
2.657701 8.464570 7.914578
30.944900 0.568010 42.755537
7.240795 5.708660 55.984015
8.806422 5.708660 20.365935
32.055982 0.321230 45.275600
33.973033 0.061970 37.850115
36.456700 7.134702 7.369986
33.536849 4.527560 58.200335
34.442105 4.527560 11.027380
3.937010 5.475282 26.208755
7.263158 4.992038 74.803100
33.892194 1.522148 39.596425
32.037137 4.527560 2.532925
33.082165 8.464570 22.273278
34.877927 0.806492 33.626369
35.081746 11.248191 37.653006
36.456700 7.878066 0.451180
34.846054 0.863327 45.275600
32.487495 12.992100 39.232655
34.729125 11.694717 33.464600
34.503624 12.617726 41.154072
34.283186 12.773922 43.384833
2.947593 8.464570 15.712344
29.559893 5.708660 4.881518
1.619498 8.464570 72.916138
0.000000 7.790369 77.429472
34.633144 8.464570 27.672529
31.678192 5.708660 45.355668
23.798278 7.283460 50.224284
31.425088 7.729102 0.000000
33.897600 1.963041 35.924139
33.897600 3.269487 40.738742
33.897600 3.724981 33.482997
3.077295 8.464570 13.130267
9.653228 4.527560 1.816382
0.000000 8.332314 59.629092
33.052143 0.839422 33.464600
36.107466 8.464570 68.984901
29.190365 7.283460 65.682776
20.352716 5.708660 14.006045
3.937010 5.389774 16.391600
0.000000 6.745357 16.039188
33.372755 4.527560 29.433361
34.253611 0.182522 42.126109
34.941780 3.596764 33.464600
36.456700 7.737421 28.557071
32.992259 4.527560 62.365485
32.449326 0.000000 44.462191
33.871086 0.700782 33.464600
3.737022 4.527560 61.852333
10.030556 8.464570 74.843113
3.937010 7.846114 29.671800
36.034488 4.527560 67.396573
6.341353 4.527560 75.624576
33.333225 11.811000 34.524059
36.456700 4.808435 36.308377
3.768008 8.464570 67.672053
32.519700 5.534009 51.692067
33.914129 2.620530 33.464600
36.456700 5.904294 13.522429
27.799525 5.479926 74.803100
33.894616 0.779307 45.275600
35.078700 10.587335 36.182190
5.648436 7.283460 72.327987
27.275755 5.708660 25.428740
33.756439 1.268057 41.802830
6.914409 7.964274 3.937010
21.306846 7.283460 74.123097
22.583506 6.438125 0.000000
14.148506 7.283460 14.310198
3.937010 5.527291 23.647459
26.322494 5.708660 64.205541
31.083000 12.570007 39.376175
35.033540 2.559060 40.518428
33.894096 11.467315 35.125668
21.327976 7.566542 74.803100
33.098481 0.000000 38.359945
26.456853 8.464570 78.596000
33.651933 5.528886 0.000000
34.640643 8.464570 14.567029
30.174988 7.283460 23.567214
13.692381 4.527560 0.057160
28.327514 8.464570 76.549112
36.238006 4.527560 52.106086
32.736198 8.464570 7.184610
18.725963 5.708660 32.438743
5.626203 7.283460 39.751042
17.597920 7.283460 12.043377
30.077403 5.708660 45.572863
32.519700 4.971753 72.050592
3.937010 4.843339 50.437340
3.937010 8.199839 61.345480
26.379393 7.044962 0.000000
31.308580 5.708660 63.418956
8.719474 7.283460 18.819958
34.050116 8.464570 33.124776
24.830857 5.708660 13.331621
9.353165 7.283460 71.595174
4.480343 4.527560 77.303989
32.855528 8.464570 15.275680
0.000000 8.270329 6.364867
0.000000 4.653846 6.715519
22.064870 8.464570 76.619164
35.676036 4.527560 59.714666
0.000000 6.608199 63.325094
10.629438 5.176276 74.803100
0.000000 5.244144 54.040135
3.239462 4.527560 71.662309
34.208000 3.718244 45.275600
3.745082 4.527560 73.786099
5.705410 7.283460 15.286918
33.894903 1.559337 36.534798
33.195558 11.811000 38.140537
0.000000 7.023426 29.619022
33.158647 4.527560 4.980455
36.456700 5.132853 31.800131
33.170372 12.054806 33.464600
1.750064 8.464570 15.186299
31.166813 1.181100 43.118988
3.937010 4.598578 14.064205
33.905955 11.377626 39.004479
36.436152 4.527560 34.678088
36.456700 7.848067 76.217675
34.044162 10.433100 44.777880
0.000000 5.108068 4.434692
34.398909 8.464570 22.930529
32.466917 5.708660 32.834862
34.933982 2.559060 36.411160
33.897600 4.244277 37.391875
28.474312 7.746707 74.803100
21.487070 4.527560 76.096434
0.692955 4.527560 73.020059
25.773986 7.283460 13.996242
0.000000 8.423902 10.439778
34.415132 10.433100 38.763848
33.889919 1.507339 42.162450
17.245722 4.527560 1.063966
0.000000 6.377599 0.567674
27.010961 7.283460 54.512647
33.825663 11.624380 38.407330
0.000000 5.871358 75.818101
36.299455 8.464570 64.485011
33.897600 1.672769 37.605567
28.652583 4.527560 2.364033
32.690173 8.464570 74.931256
19.645421 7.283460 36.981344
0.189912 8.464570 62.520449
28.885599 5.708660 26.412834
33.183334 4.527560 74.339195
3.032828 8.464570 48.100482
20.801078 5.708660 10.212165
0.000000 6.218707 75.405753
32.737481 12.992100 37.183898
0.916996 8.464570 59.139002
13.333387 4.527560 77.300966
10.224954 5.426748 74.803100
33.622774 8.464570 56.713388
24.041858 4.527560 78.580460
34.045788 8.464570 49.203500
33.897600 9.355006 44.352539
33.315727 12.745356 45.275600
35.078700 1.945234 40.639299
0.000000 7.050115 56.357914
36.456700 5.329684 25.151471
11.675153 5.708660 65.557864
33.897600 8.514275 35.449630
0.000000 5.022766 46.120731
31.434187 0.000000 42.929830
14.535570 5.708660 49.583535
35.975040 4.527560 33.174345
33.061114 8.464570 46.806652
34.742875 0.704385 45.275600
3.937010 4.801238 36.989988
30.774018 5.708660 16.334904
24.039011 8.464570 77.926433
32.681771 0.000000 38.854987
35.078700 10.120857 40.054634
6.577116 4.527560 1.938259
22.208232 7.283460 37.351607
32.519700 4.874322 62.893326
32.950726 4.527560 4.714089
17.936823 7.283460 13.952648
35.040925 1.885365 45.275600
34.146841 12.846776 34.145887
34.432850 0.297925 39.073128
22.990395 8.464570 3.747685
33.204569 0.000000 37.461779
3.129562 8.464570 13.731446
36.456700 7.618285 67.983209
12.070982 7.283460 49.590483
24.225294 5.708660 5.380627
32.519700 7.346639 69.645993
33.900740 11.288038 33.867910
36.230766 4.527560 0.408375
27.817508 4.527560 76.172602
33.839345 8.464570 54.898989
32.519700 4.749860 72.355074
24.279934 7.283460 62.122517
30.308896 5.708660 52.975574
34.541664 2.935404 33.464600
33.685005 1.218220 37.831952
14.551111 5.708660 42.626832
2.292140 4.527560 77.919814
33.068469 4.527560 72.800381
12.796426 6.440323 78.740200
21.233304 7.283460 6.246182
32.519700 5.588690 34.892750
19.090006 5.708660 45.448485
25.368416 8.464570 76.791305
23.246413 8.464570 77.792071
32.717710 4.527560 66.538809
28.931337 8.464570 78.129322
8.089861 8.464570 0.842421
15.588632 7.283460 28.617788
34.393295 0.269587 38.503025
28.791570 5.708660 48.316148
34.670188 12.456904 43.058735
10.279178 5.708660 37.596881
28.788362 4.527560 3.188130
3.937010 4.640090 11.467792
34.864455 0.782456 35.275286
0.000000 6.860050 70.204243
33.695039 12.275296 45.275600
33.608158 11.792108 35.091005
3.937010 8.095806 23.138361
20.065955 8.250797 0.000000
32.519700 7.336175 47.233002
32.519700 7.663177 6.315999
23.239188 5.708660 6.298295
33.893781 1.543945 41.752262
23.547655 7.283460 39.790442
33.903323 11.406828 35.892536
33.897600 4.031493 33.619898
32.519700 5.585933 32.020051
13.592868 7.283460 26.611046
33.851485 4.527560 5.379913
30.944900 1.145710 44.631753
14.925999 8.464570 78.086503
30.944900 0.475355 39.830301
35.055128 2.559060 35.634385
33.700518 12.792391 33.464600
0.241513 8.464570 67.201219
35.070661 8.464570 20.672864
25.516209 7.820768 3.937010
35.078700 8.623682 43.905754
0.518295 4.527560 62.354490
32.910703 8.464570 36.493989
17.690453 7.832700 78.740200
30.760496 4.527560 1.623870
33.897600 1.737230 37.242404
10.085575 7.283460 38.423069
1.148540 8.464570 49.086470
13.964016 4.527560 0.636834
7.903522 5.708660 17.432064
28.174264 8.319260 3.937010
35.194977 8.464570 39.194011
36.456700 4.880988 65.385827
1.624965 4.527560 78.218160
12.354859 8.464570 0.238648
22.734505 8.464570 2.707544
5.783297 7.283460 24.721409
34.152467 12.844404 34.140774
36.456700 6.928822 77.919894
35.390608 8.464570 18.372840
17.896702 8.464570 3.021024
14.017199 7.283460 52.023150
0.000000 4.599377 36.915996
33.897600 10.619525 34.479398
36.267995 4.527560 40.687899
32.519700 7.745325 54.185388
20.385198 7.681835 74.803100
17.901353 7.283460 41.119121
14.479441 5.708660 52.624838
34.578881 0.420375 38.485612
34.120387 0.113868 38.849485
3.937010 7.573784 13.206789
0.000000 8.429072 15.688126
36.011411 4.527560 5.100354
16.781766 7.283460 26.399105
28.526141 4.527560 78.151497
18.381014 7.283460 12.036742
35.201185 8.464570 27.522214
33.791344 12.965540 37.241467
16.011078 7.283460 59.141382
35.078700 9.924205 42.580781
33.906132 11.371213 36.476281
34.934862 12.056690 43.203604
35.148778 4.527560 21.673591
33.634016 11.781210 38.070149
36.456700 6.741111 30.867935
34.621867 12.513341 38.818427
7.154945 7.729220 74.803100
33.082844 4.527560 69.590564
33.120765 0.153159 45.275600
33.611398 1.186550 36.436292
3.937010 7.436544 72.419361
15.077535 6.436050 78.740200
36.456700 4.973816 2.237255
33.897600 10.903016 34.640117
31.824192 12.992100 37.133695
21.480063 5.708660 4.566602
35.988107 4.527560 65.911400
0.000000 7.938655 30.796343
33.209851 8.464570 17.215520
16.515329 7.283460 45.601815
35.078700 2.374680 34.688262
7.380735 8.464570 0.891214
34.709045 4.527560 32.638498
16.287159 4.752567 3.937010
16.142406 5.708660 56.328349
32.519700 8.201999 32.348364
32.152729 11.811000 43.960393
11.583509 7.283460 41.595087
34.862021 0.778115 43.465074
34.239500 4.527560 28.731113
5.782387 7.283460 18.903898
11.967404 7.283460 24.498902
1.610659 8.464570 5.594845
0.000000 5.935357 52.776190
10.837179 5.429997 3.937010
16.546235 7.283460 70.099798
32.501336 4.994089 3.937010
23.039952 4.527560 76.976646
32.519700 7.485164 21.946568
25.555908 7.862448 3.937010
9.659727 4.956433 0.000000
35.078700 10.194556 36.821103
35.078700 2.703572 38.127671
15.278539 5.708660 45.583476
32.871217 8.464570 36.918371
33.821216 8.464570 59.386712
33.828781 1.350396 37.330059
34.822122 4.527560 3.924666
32.738962 8.464570 69.935417
36.456700 5.933778 71.138933
34.229982 10.747654 45.275600
36.456700 6.576243 72.781153
34.934066 0.910109 40.658410
34.192903 2.559060 37.705616
2.911474 4.527560 52.918484
28.089963 4.527560 76.771738
35.936726 8.464570 39.046101
8.487016 8.339435 78.740200
28.506498 8.464570 1.634427
30.944900 0.168804 35.409456
35.034716 1.214243 41.448989
19.112092 4.964910 0.000000
32.519700 7.375009 70.141268
33.822147 1.341563 42.223716
2.428204 8.464570 34.189764
35.078700 3.517171 42.525004
2.852628 8.464570 58.476645
32.519700 5.286034 32.388620
32.552826 1.181100 43.121816
35.419770 8.464570 9.564352
16.827693 7.283460 68.873056
33.851293 11.582967 37.508473
32.574365 6.853220 78.740200
32.519700 7.620992 4.064649
32.519700 8.330968 66.723377
3.937010 7.384487 19.796343
2.163729 8.464570 21.393591
33.447377 12.992100 37.189847
3.594629 4.527560 2.587944
35.078700 10.973841 36.161845
0.040227 4.527560 44.700806
32.519700 5.515401 47.025032
32.519700 7.909119 29.397434
30.251221 5.708660 28.738046
33.897600 11.005149 44.097492
16.551393 8.464570 77.040033
9.565305 5.708660 13.475286
34.611073 0.451446 44.560503
29.995500 5.253736 74.803100
34.131283 4.527560 28.535773
36.456700 4.794090 53.125923
33.518230 8.464570 6.178741
3.925118 8.464570 70.948673
0.347901 4.527560 1.375941
1.534626 4.527560 40.202069
21.011789 5.708660 16.298962
14.948600 7.355154 74.803100
24.717642 5.387991 0.000000
34.980392 11.948644 34.323045
11.824030 7.283460 43.712340
30.994484 1.181100 39.741487
33.570556 0.000000 44.916447
33.694191 12.984542 45.056698
14.596171 5.708660 13.686241
32.519700 4.715747 9.237956
35.248054 4.527560 27.341323
27.595577 6.465405 78.740200
15.234012 5.708660 63.898369
32.519700 5.230735 72.499511
35.026921 11.805719 45.112640
35.078700 10.861098 37.896665
33.897600 2.060937 43.607991
9.828642 7.283460 17.673249
10.081483 4.703363 74.803100
35.843944 4.527560 25.857267
17.064939 5.708660 18.747435
20.617770 8.464570 76.395853
23.658285 5.708660 72.635053
31.564065 4.527560 2.487179
33.530720 11.813197 40.205318
31.428871 6.098562 78.740200
1.670050 7.088694 0.000000
26.655024 7.283460 14.926981
0.553078 8.464570 65.389371
33.737894 11.718446 39.207339
33.897600 10.083009 44.085453
33.818115 4.527560 46.351944
34.528431 10.433100 44.594548
21.449146 7.818931 74.803100
31.083000 11.922378 36.411593
23.993322 7.449013 78.740200
2.539104 4.527560 75.605489
20.539578 5.708660 66.189420
33.725988 0.003380 34.504719
3.160156 4.527560 12.746663
33.744095 12.652671 45.275600
10.819253 8.464570 75.847189
3.135419 4.527560 39.598004
35.073171 1.477286 37.900011
36.456700 7.428128 55.705500
30.776952 7.283460 11.501545
11.514392 5.708660 46.449776
35.078700 9.513372 42.863176
33.066588 4.527560 0.000815
32.781844 8.464570 32.589270
33.867821 0.327913 33.464600
1.907297 4.527560 33.610395
33.865967 1.423648 37.765963
8.550083 7.874534 3.937010
31.405607 5.708660 24.588086
34.909412 0.862663 34.107397
32.936955 12.551416 45.275600
3.937010 7.734448 14.955827
18.176421 7.283460 67.594334
16.655212 7.283460 34.073145
35.055341 11.691899 41.476513
36.456700 6.882389 69.830287
15.953171 8.002344 74.803100
0.000000 6.110300 64.630175
33.896198 1.577127 38.838490
33.899334 8.464570 49.085288
23.224684 5.708660 48.920951
3.937010 7.344245 7.876093
36.456700 7.136678 8.142432
3.937010 8.312389 4.530277
3.528878 8.464570 67.036960
34.614018 8.464570 46.675156
32.736436 8.464570 73.543940
27.701748 7.283460 38.215704
36.456700 6.016909 8.712147
33.897600 2.851862 41.113923
3.937010 7.509600 65.861994
6.589443 7.283460 53.329866
20.807969 8.464570 75.297183
15.015859 7.283460 38.606850
34.574778 0.416416 38.195945
13.709314 4.527560 75.721312
32.637706 4.527560 42.944690
35.078700 9.031805 42.469438
16.467866 4.820507 74.803100
28.372920 7.283460 16.420682
34.211746 2.292286 33.464600
0.000000 5.774349 37.947153
19.019440 4.527560 1.075077
31.970024 11.811000 42.715894
34.001151 12.682308 33.464600
35.573318 4.527560 53.685856
36.456700 5.964786 10.787648
35.409210 8.045241 78.740200
35.078700 11.137292 34.401126
36.072571 4.527560 65.881592
32.519700 5.133655 42.995078
35.652614 8.464570 10.650353
0.626840 5.286335 78.740200
0.000000 6.221294 7.390354
31.973001 5.289893 3.937010
4.323120 8.464570 75.688252
33.897600 2.546750 35.854712
9.261046 8.464570 2.538279
18.227789 8.464570 2.606815
36.081675 4.527560 33.210039
10.514328 5.688343 74.803100
10.807938 7.283460 40.157376
33.099526 4.527560 55.881411
7.467585 5.708660 12.422267
1.140969 4.876541 0.000000
35.078700 10.189049 34.690245
34.109206 0.108556 37.915840
35.894503 8.464570 23.604619
0.079028 8.464570 33.085420
12.395533 5.708660 6.895119
36.456700 7.022015 53.079336
27.843089 7.159165 0.000000
25.725927 5.708660 29.580042
2.744359 8.464570 69.353871
34.983368 1.071933 33.464600
15.071475 7.514344 0.000000
31.761773 12.292707 45.275600
32.519700 4.546360 10.543623
0.000000 4.807057 77.436339
4.683391 7.283460 44.176969
33.748236 1.260342 43.502072
32.817946 4.527560 9.294017
16.086877 7.283460 56.674096
33.005370 12.992100 37.608895
0.214360 4.527560 8.295118
32.519700 5.355014 40.896815
32.499686 0.434021 33.464600
32.519700 7.480714 45.999030
5.806767 7.283460 46.460501
